x	y	z
2679474.75	1246804.25	469.77
2679536.25	1247032.75	440.2
2679409.75	1247020.75	446.21
2679546.75	1246879.25	449.68
2679464.25	1247007.75	443.24
2679452.75	1246875.75	458.95
2679521.75	1246792.75	461.93
2679344.25	1246800.75	489.27
2679289.25	1246801.75	492.95
2679315.75	1246880.25	479.12
2679645.75	1247132.25	434.32
2679578.25	1246819.25	454.91
2679448.25	1246870.75	460.01
2679488.25	1247136.75	435.76
2679518.25	1246913.25	449.29
2679461.75	1246965.25	447.84
2679654.25	1246983.25	444.55
2679571.25	1247135.75	434.54
2679645.25	1247012.25	439.97
2679299.25	1247116.25	449.73
2679491.75	1246841.75	459.2
2679280.75	1246828.75	488.44
2679292.25	1246819.25	489.53
2679392.25	1246892.75	464.92
2679323.25	1246994.75	456.89
2679291.25	1247019.25	457.05
2679624.25	1246815.25	459.24
2679460.75	1246859.75	461.09
2679348.25	1246860.75	480.88
2679591.25	1246963.75	444
2679287.75	1247084.25	451.67
2679315.75	1246803.75	492.06
2679283.75	1247082.75	451.54
2679352.75	1247043.75	449.91
2679482.75	1247133.25	436.09
2679482.75	1246951.25	448.17
2679458.25	1246926.25	452.36
2679322.25	1246790.25	493.14
2679385.75	1247054.75	446.11
2679618.25	1246819.75	458.11
2679387.25	1246897.25	462.99
2679342.25	1246921.25	465.01
2679328.25	1246786.75	493.46
2679443.75	1246994.75	445.75
2679276.25	1247124.25	450.69
2679358.75	1246986.75	453.33
2679483.25	1247022.75	440.62
2679643.75	1247009.25	440.48
2679417.75	1246793.75	477.08
2679493.25	1247079.25	437.93
2679593.25	1246856.75	451.59
2679296.25	1246821.25	489.68
2679443.25	1247135.25	437.1
2679313.75	1247009.75	455.59
2679507.25	1247140.25	435.11
2679418.25	1247018.75	445.32
2679410.25	1247002.75	448.13
2679326.75	1247099.75	448.04
2679340.75	1246931.25	463.91
2679650.75	1247054.75	437.76
2679650.75	1247012.25	440.36
2679326.25	1247096.75	447.96
2679382.75	1246823.25	478.18
2679323.75	1246800.75	491.68
2679498.25	1246788.75	470.2
2679277.75	1247060.75	454.67
2679278.25	1247124.25	450.7
2679443.25	1246910.25	456.69
2679526.25	1246883.75	452.22
2679319.75	1247082.25	448.83
2679568.25	1246918.25	447.77
2679426.25	1247151.75	439.52
2679291.75	1247084.75	450.84
2679540.25	1247012.25	440.44
2679391.75	1247044.75	445.75
2679296.25	1247149.75	447.14
2679451.75	1247025.25	442.18
2679360.25	1246948.75	457.81
2679399.25	1247039.75	445.42
2679402.75	1246808.25	479.55
2679389.25	1247067.25	445.7
2679416.75	1246969.25	451.41
2679352.25	1247050.25	449.76
2679554.75	1246815.75	455.23
2679584.75	1246828.25	454.18
2679423.25	1247025.75	444.42
2679277.25	1246862.75	485.29
2679307.25	1246898.25	472.46
2679291.25	1246885.25	478.72
2679609.25	1246844.25	453.46
2679442.25	1246824.75	468.79
2679620.75	1246853.75	453.24
2679503.25	1247110.75	436.39
2679547.25	1246808.25	457.53
2679333.75	1246913.25	469.07
2679377.75	1246899.75	463.81
2679319.25	1246980.25	458.49
2679333.25	1246866.25	480.33
2679558.25	1246963.75	443.87
2679331.25	1247150.25	444.6
2679538.75	1246878.75	451.57
2679383.25	1247004.75	449.36
2679310.25	1246882.75	477.08
2679590.75	1246824.25	455.32
2679495.75	1247110.75	436.65
2679391.25	1246897.25	462.31
2679584.75	1247095.75	435.82
2679426.25	1247150.25	439.65
2679376.25	1247142.25	440.85
2679422.25	1246907.25	457.86
2679294.75	1246796.25	495.8
2679340.75	1246870.75	478.3
2679358.25	1246877.75	472.17
2679300.75	1246901.75	473.13
2679498.25	1246945.75	446.5
2679367.75	1246824.75	481.89
2679325.25	1246927.75	468.37
2679276.25	1247078.75	453.68
2679300.75	1246909.25	472.66
2679509.25	1246961.75	444.87
2679308.25	1247005.75	456.98
2679285.75	1247137.75	448.81
2679328.25	1247014.75	454.39
2679541.25	1247100.25	436.71
2679276.25	1246824.25	489.92
2679627.25	1247007.25	442.11
2679306.75	1246910.25	472.09
2679378.75	1247143.75	440.74
2679497.25	1246842.25	458.49
2679441.25	1246832.75	467.61
2679530.75	1246788.25	462.07
2679498.75	1246907.75	450.03
2679374.25	1246820.75	481.57
2679350.75	1246792.25	490.66
2679490.25	1247018.25	439.53
2679307.25	1247119.75	448.29
2679577.25	1246885.25	448.96
2679314.75	1246818.25	490.01
2679336.75	1246800.75	491.05
2679300.75	1247134.25	447.91
2679276.75	1246834.25	486.78
2679428.25	1246841.75	472.16
2679416.25	1246860.25	468.24
2679578.25	1246830.25	453.29
2679403.75	1246980.25	451.32
2679452.25	1247116.25	439.17
2679339.75	1246992.75	454.23
2679549.25	1246837.75	454.97
2679605.25	1247006.25	441.18
2679323.75	1247016.75	454.56
2679565.75	1246852.75	451.23
2679490.75	1246841.75	459.42
2679434.25	1246834.75	470.17
2679320.25	1247076.25	450.28
2679433.75	1246868.25	464.19
2679382.75	1246880.25	467.51
2679393.25	1247057.25	445.14
2679310.25	1246842.75	483.65
2679578.25	1246992.75	441.6
2679425.75	1247033.75	442.67
2679294.75	1246811.25	491.24
2679596.25	1247087.75	435.74
2679579.75	1246972.75	443.21
2679323.75	1246864.75	482.43
2679325.75	1247147.25	444.73
2679421.25	1246790.25	478.7
2679383.25	1247140.75	440.13
2679346.25	1246795.25	489.35
2679338.75	1246854.75	481.62
2679348.25	1246935.75	460.91
2679631.25	1247005.75	442.94
2679304.75	1246909.75	472.2
2679468.25	1247100.75	437.89
2679524.25	1246884.75	452.1
2679340.75	1246896.75	467.75
2679302.25	1246811.25	491.78
2679555.25	1246852.25	452.77
2679346.25	1246827.25	483.59
2679315.75	1246891.25	474.86
2679516.25	1247088.75	436.68
2679343.25	1247088.25	447.41
2679468.75	1247031.75	441.24
2679486.75	1246792.75	470.99
2679328.75	1246961.75	460.94
2679651.25	1247012.25	440.4
2679599.75	1247015.75	440.64
2679297.25	1246897.75	474.84
2679449.75	1246933.75	451.63
2679285.25	1247130.25	449.96
2679435.75	1246840.75	468.14
2679557.75	1246784.75	462.88
2679560.75	1246850.25	451.49
2679465.25	1246924.75	451.08
2679528.75	1246897.75	449.82
2679641.25	1246856.25	455.32
2679625.25	1247006.25	441.97
2679609.25	1246833.25	455.65
2679620.25	1246993.25	442.11
2679399.75	1247081.75	443.03
2679309.25	1247066.25	450.76
2679278.75	1246877.25	481.3
2679380.75	1247137.75	439.64
2679383.25	1246968.75	453.28
2679284.75	1247086.75	452.19
2679414.75	1246855.25	470.12
2679328.25	1246831.25	485.97
2679387.75	1247057.75	445.84
2679450.75	1247025.75	442.21
2679351.75	1247082.25	447.41
2679628.25	1247000.25	443.42
2679368.25	1246890.75	466.49
2679653.75	1247034.25	440.58
2679580.75	1246911.25	448.07
2679331.75	1246829.75	483.29
2679642.25	1246801.75	459.25
2679295.75	1246931.25	470.7
2679638.75	1246791.25	461.3
2679574.25	1246784.25	461.12
2679299.25	1247018.75	456.51
2679349.75	1246926.75	462.21
2679384.25	1247121.75	441.87
2679386.25	1246976.25	451.48
2679525.75	1246920.75	447.28
2679639.25	1246864.25	453.15
2679480.75	1247072.75	438.4
2679430.25	1246786.25	478.26
2679344.75	1246885.75	469.11
2679395.75	1246812.25	479.22
2679540.75	1247099.25	436.75
2679532.75	1247086.75	437.54
2679469.75	1246823.25	464.61
2679501.25	1246818.75	462.85
2679306.25	1247008.75	456.93
2679410.25	1246803.75	479.21
2679441.25	1246853.25	463.22
2679277.25	1246870.25	482.37
2679518.75	1246829.25	458.32
2679304.25	1247001.25	457.59
2679453.75	1246853.25	462.89
2679316.75	1246882.75	478.43
2679513.25	1246938.25	446.41
2679391.25	1246795.75	482.3
2679341.75	1247055.25	449.44
2679277.75	1247124.25	450.71
2679312.25	1246836.25	486.78
2679505.25	1247021.25	440.27
2679522.25	1247089.25	437.17
2679361.75	1246808.75	486.4
2679392.75	1246795.25	482.16
2679482.75	1246944.25	448.74
2679309.75	1247143.25	445.59
2679647.75	1247002.25	442.59
2679338.75	1247124.75	444.7
2679328.75	1246883.25	475.61
2679355.25	1246873.75	474.24
2679513.75	1246997.75	442.42
2679354.75	1246796.75	489.28
2679293.75	1247024.75	454.95
2679346.75	1246875.25	474.79
2679338.25	1247024.25	452.11
2679396.75	1247051.25	445.13
2679412.75	1246998.75	448.33
2679625.25	1247085.25	436.05
2679566.25	1246852.75	451.23
2679469.75	1246838.25	462.61
2679576.25	1247091.75	437.14
2679629.75	1247086.75	436.66
2679299.75	1247123.75	449
2679362.25	1247083.75	445.69
2679398.25	1247050.75	444.95
2679523.25	1247015.25	441.26
2679383.75	1247038.75	447.68
2679278.75	1246831.25	486.76
2679334.25	1247074.75	449.56
2679456.75	1246898.25	456.52
2679392.25	1246894.75	463.79
2679320.25	1246999.75	455.64
2679560.75	1247123.25	435.72
2679378.75	1247139.75	440.13
2679643.25	1246916.75	449.07
2679460.75	1246801.75	472.81
2679308.25	1247078.75	450.74
2679364.75	1246899.75	465.92
2679574.75	1247059.25	439.13
2679463.25	1246895.25	456.42
2679421.25	1246816.25	475.74
2679377.75	1246789.25	487.52
2679377.75	1247082.25	445.37
2679625.75	1246993.25	443.35
2679464.25	1246894.25	456.47
2679549.25	1246907.75	446.82
2679459.75	1246946.75	450.31
2679632.75	1246946.25	445
2679341.25	1246900.75	466.35
2679332.25	1246903.25	470.95
2679293.25	1246931.25	471.15
2679282.25	1246812.75	490.97
2679437.75	1246792.25	474.6
2679523.25	1246880.75	452.14
2679513.25	1247082.25	437.88
2679396.25	1246969.25	451.68
2679385.75	1247054.25	446.14
2679276.25	1246948.75	468
2679519.25	1246785.25	465.33
2679308.25	1246999.25	457.44
2679392.25	1247055.75	445.44
2679347.75	1247056.25	449.55
2679582.25	1247088.75	437.26
2679628.75	1247001.25	443.37
2679527.25	1246875.25	452.16
2679513.75	1246814.25	461.73
2679324.75	1247005.25	455.35
2679279.25	1246826.75	489.48
2679291.25	1247018.75	457.13
2679335.25	1247035.75	450.46
2679346.25	1246800.75	489.24
2679379.25	1247136.25	439.45
2679299.75	1247123.25	449.07
2679493.25	1246988.25	442.11
2679415.25	1247080.75	441.57
2679527.25	1246881.25	452.22
2679352.75	1247140.75	442.15
2679593.25	1247115.75	434.66
2679432.25	1246789.25	475.12
2679455.75	1246926.25	452.89
2679327.25	1246794.25	493.05
2679322.75	1246896.75	472.43
2679307.25	1247082.25	450.35
2679572.25	1247066.25	437.95
2679383.75	1246895.75	464.93
2679390.75	1246857.75	474.32
2679572.25	1247065.75	437.98
2679549.25	1246851.75	452.86
2679571.25	1247130.25	435.45
2679361.25	1247069.25	447.88
2679613.75	1246791.75	459.8
2679577.75	1246973.25	443.23
2679354.75	1246857.25	480.46
2679313.75	1246808.75	491.96
2679409.25	1246807.25	476.95
2679357.25	1246908.75	464.27
2679308.75	1247125.25	446.87
2679620.75	1246866.25	452.6
2679351.25	1246949.75	459.91
2679575.25	1246981.25	442.12
2679309.75	1246870.25	481.91
2679323.25	1246784.75	495.18
2679478.75	1246810.25	468.06
2679444.75	1247126.25	439.02
2679342.75	1247113.75	446.52
2679532.75	1246917.25	447.19
2679457.75	1246859.75	461.16
2679286.25	1246986.25	460.08
2679327.75	1247100.25	447.76
2679381.75	1246841.25	478.71
2679277.25	1247088.25	452.68
2679333.75	1246981.75	456.07
2679356.75	1246877.75	472.46
2679404.75	1246792.25	481.85
2679646.75	1247127.75	435.34
2679491.25	1246880.25	455.42
2679620.75	1247011.75	441.32
2679426.25	1246787.75	478.5
2679385.75	1246908.25	460.72
2679594.75	1246865.25	451.58
2679553.75	1247007.75	440.81
2679626.75	1246911.75	448.66
2679522.25	1247021.25	440.25
2679646.75	1246979.25	442.98
2679449.75	1247119.25	439.04
2679471.75	1246913.25	453.11
2679525.25	1247103.25	436.49
2679452.25	1246875.25	459.16
2679371.25	1246982.25	453.32
2679588.75	1247059.75	438.05
2679413.75	1246791.75	480.72
2679428.25	1246847.25	470.32
2679292.25	1246816.75	489.74
2679618.25	1246813.25	458.79
2679440.25	1246862.25	463.79
2679611.75	1247099.25	435.87
2679596.75	1247102.25	435.79
2679289.25	1246961.25	461.98
2679418.25	1247002.25	446.47
2679417.25	1246968.75	451.41
2679308.75	1246999.25	457.36
2679380.75	1246912.75	460.54
2679597.75	1246968.25	443.49
2679310.25	1246995.75	457.81
2679439.25	1247144.25	436.72
2679482.25	1246837.25	460.83
2679493.75	1246988.25	442.08
2679374.75	1247141.25	440.83
2679323.25	1246799.75	492.13
2679392.25	1246880.25	466.74
2679586.25	1246836.75	453.86
2679494.25	1247147.25	434.24
2679371.75	1247132.25	439.97
2679297.25	1246961.75	461.56
2679567.75	1246815.25	455
2679385.75	1246858.25	475.78
2679459.75	1246873.75	458.4
2679292.75	1246899.75	478.13
2679310.25	1246975.25	459.82
2679504.75	1246791.75	467.25
2679579.25	1246829.25	453.44
2679478.25	1247098.25	437.47
2679624.75	1246968.75	443.54
2679655.75	1247033.25	440.59
2679459.75	1246802.75	472.8
2679317.25	1246813.75	491.58
2679299.75	1246823.75	489.17
2679515.75	1246803.75	463.5
2679334.75	1246984.75	455.59
2679536.25	1246788.25	460.6
2679374.75	1247043.25	447.21
2679456.75	1247088.75	439.99
2679472.75	1246935.75	451.37
2679440.75	1247072.75	440.23
2679349.25	1246911.25	464.05
2679439.75	1247144.75	436.58
2679295.75	1246910.25	474.24
2679426.25	1246788.25	478.42
2679400.75	1246995.25	449.74
2679437.75	1246860.75	464.88
2679301.75	1246832.75	486.82
2679593.75	1246918.25	447.82
2679612.25	1247072.75	437.65
2679463.25	1246818.25	468.34
2679633.75	1246854.75	455.33
2679303.25	1246822.25	489.72
2679344.25	1246902.75	465.64
2679447.25	1246861.25	461.7
2679469.25	1246934.75	451.34
2679528.75	1246897.25	449.86
2679336.25	1246897.75	471.35
2679492.75	1246810.75	465.69
2679286.75	1246832.25	485.9
2679331.25	1246790.75	493.28
2679507.25	1246814.75	463.05
2679315.75	1246953.75	464.57
2679382.75	1247046.75	447.7
2679321.25	1246810.25	489.52
2679390.75	1246924.75	457.88
2679577.25	1246986.25	441.88
2679501.25	1246812.25	463.35
2679381.25	1247134.75	440.24
2679627.25	1246798.75	458.87
2679545.25	1246863.25	451.63
2679631.75	1247001.25	443.52
2679521.25	1247022.25	440.18
2679554.75	1246787.25	461.19
2679291.25	1246805.25	491.59
2679519.75	1246809.25	461.58
2679348.75	1246961.25	458.48
2679457.75	1247116.25	437.78
2679468.25	1246936.75	451.19
2679579.75	1246990.25	441.68
2679475.75	1246804.25	469.58
2679379.25	1246899.75	463.56
2679628.75	1247095.75	436.53
2679541.25	1246906.25	447.66
2679491.25	1246844.75	458.47
2679324.25	1246827.25	487.76
2679437.75	1246860.25	464.94
2679470.75	1247088.25	437.87
2679609.75	1247028.75	440.66
2679276.25	1247136.25	450.1
2679301.75	1246899.25	473.44
2679583.25	1247061.75	437.98
2679339.25	1247046.75	450.42
2679289.25	1246860.25	484.5
2679513.75	1246817.75	460.92
2679473.25	1246836.25	462.69
2679422.25	1246866.25	465.32
2679481.25	1247033.75	440.53
2679497.25	1247025.25	439.7
2679300.75	1247139.25	445.87
2679465.75	1247087.25	439.2
2679339.75	1246895.75	468.47
2679363.25	1247093.75	445.45
2679328.75	1246963.25	460.58
2679276.25	1246869.25	482.53
2679449.75	1246877.75	460.29
2679477.75	1247023.75	441.54
2679424.25	1246852.25	469.44
2679355.75	1246873.75	474.16
2679476.25	1247069.25	439.65
2679570.25	1246957.25	444.28
2679646.25	1247132.75	434.29
2679398.25	1246976.25	451.44
2679370.75	1247023.75	448.79
2679328.75	1246874.75	479.54
2679431.75	1247081.75	440.28
2679340.25	1246971.75	456.81
2679579.25	1246990.75	441.67
2679648.75	1247124.25	436.25
2679311.25	1247086.25	449.81
2679654.75	1247052.25	439.33
2679509.25	1246833.25	458.33
2679445.25	1246830.75	467.11
2679298.75	1247134.75	448.39
2679513.25	1246906.25	449.92
2679334.25	1246929.75	466.81
2679279.25	1246958.25	463.73
2679326.25	1246979.75	457.2
2679346.75	1247113.75	445.52
2679292.25	1247083.25	450.79
2679608.75	1246795.75	459.49
2679301.75	1246860.25	483.82
2679351.75	1247088.75	446.29
2679412.25	1247000.75	448.16
2679293.25	1246899.25	477.84
2679495.75	1246819.25	463.06
2679393.25	1247016.25	447.28
2679414.25	1246792.25	480.2
2679443.75	1246937.75	451.82
2679330.75	1246923.75	468.55
2679300.25	1247144.75	446.72
2679339.75	1246936.25	463.71
2679333.75	1246983.75	455.88
2679443.75	1246859.75	462.36
2679344.25	1246900.75	466.01
2679531.25	1246993.25	441.98
2679441.25	1246868.75	462.89
2679536.75	1246881.25	450.15
2679533.75	1247103.75	436.76
2679359.75	1247099.75	444.75
2679362.75	1246826.75	482.05
2679337.75	1246994.75	454.65
2679530.25	1246897.75	449.75
2679342.25	1247000.75	454.09
2679531.75	1246885.75	449.94
2679430.75	1246988.25	448.14
2679629.75	1247007.25	442.51
2679404.75	1246857.75	471.92
2679635.25	1247051.75	439.74
2679343.25	1246795.75	489.37
2679427.25	1246817.25	475.26
2679340.25	1246926.75	465.79
2679647.75	1246832.75	458.8
2679345.75	1247066.75	448.72
2679492.75	1246986.75	442.31
2679425.25	1246824.75	475.55
2679382.25	1246823.75	478.19
2679297.75	1246805.25	491.71
2679359.25	1247091.75	445.8
2679469.75	1246887.25	456.65
2679516.75	1246941.25	445.98
2679462.75	1246875.25	456.98
2679410.25	1247067.25	442.32
2679577.25	1246790.25	460.56
2679586.75	1247121.25	435.45
2679297.75	1246895.25	475.21
2679646.25	1247016.25	439.64
2679345.75	1247091.75	446.79
2679391.25	1247045.75	445.74
2679315.25	1246991.25	458.07
2679583.75	1246810.25	456.82
2679416.75	1246929.25	456.66
2679532.75	1247107.25	435.88
2679391.25	1247117.25	440.41
2679381.75	1246946.75	456.42
2679288.25	1246960.75	462.13
2679326.75	1246919.75	470.32
2679363.25	1247066.75	447.8
2679470.25	1247079.75	439.5
2679471.25	1247105.75	436.67
2679370.75	1247131.25	440.91
2679593.25	1247090.25	435.72
2679347.75	1247021.75	450.3
2679435.25	1246840.75	468.39
2679617.25	1247134.25	434.93
2679491.75	1246995.25	441.92
2679522.75	1246908.25	448.77
2679386.75	1247136.25	440.43
2679381.75	1246962.25	454.64
2679318.25	1246888.75	475.63
2679400.75	1246785.75	484.44
2679530.75	1246797.75	459.32
2679322.75	1246994.75	456.93
2679457.25	1247123.75	436.57
2679366.75	1247088.25	444.93
2679479.25	1246918.75	450.59
2679521.75	1246915.75	447.84
2679389.25	1246798.25	482.44
2679516.75	1246832.25	457.74
2679529.25	1247016.25	440.41
2679422.75	1246856.75	468.07
2679279.75	1246803.75	491.38
2679323.25	1247125.25	446.08
2679289.25	1246860.75	484.48
2679355.25	1246852.75	480.47
2679282.25	1247083.25	451.56
2679414.25	1246849.75	471.36
2679292.75	1246951.75	465.82
2679570.75	1246926.25	446.2
2679482.75	1247151.75	434.16
2679416.75	1247143.75	439.43
2679578.75	1246993.25	441.56
2679565.75	1246852.25	451.27
2679341.25	1246901.75	466.25
2679598.25	1247085.75	435.74
2679293.75	1246897.25	477.92
2679635.75	1247006.25	442.85
2679534.25	1246936.75	445.75
2679646.75	1246875.25	452.45
2679469.75	1246883.75	456.49
2679427.75	1246926.75	455.6
2679423.25	1246836.25	473.36
2679578.75	1246829.75	453.36
2679615.75	1247073.75	435.94
2679334.75	1247035.75	450.55
2679497.75	1246992.75	441.88
2679570.75	1246796.75	457.83
2679433.75	1246834.75	470.36
2679410.25	1247084.75	441.14
2679404.75	1246796.25	481.72
2679589.25	1246885.75	448.99
2679445.25	1247150.75	436.15
2679441.25	1246824.75	468.95
2679336.25	1246909.75	468.84
2679379.25	1247130.25	441.54
2679630.25	1247003.25	443.26
2679422.25	1246870.25	464.58
2679417.25	1246803.25	475.87
2679394.25	1246857.25	473.75
2679497.75	1247143.25	435.14
2679337.25	1246893.25	469.32
2679443.25	1246916.75	456.15
2679450.75	1246932.25	451.81
2679424.25	1246828.75	475.04
2679331.25	1247029.75	452.62
2679339.25	1246827.75	483.34
2679458.25	1246848.75	463.54
2679317.75	1247085.25	448.96
2679415.25	1246795.25	477.14
2679471.75	1247096.25	438.83
2679487.25	1246826.75	463.64
2679291.75	1246786.25	496.85
2679338.75	1247045.75	450.47
2679564.25	1246995.25	441.54
2679580.25	1246827.75	453.71
2679428.75	1246902.75	458.84
2679345.25	1246927.25	463.15
2679513.75	1247012.75	440.78
2679589.75	1246797.75	458.62
2679613.75	1246999.25	442.16
2679377.75	1246837.75	479
2679383.75	1247141.25	440.18
2679654.75	1247094.25	437.24
2679553.75	1247022.25	440.64
2679461.25	1246882.25	456.62
2679434.75	1246785.75	477.17
2679282.25	1247055.25	454.82
2679628.25	1246810.25	459.22
2679448.75	1246963.25	450.64
2679513.25	1246997.75	442.41
2679438.25	1246910.25	457.43
2679355.25	1246835.75	479.98
2679647.75	1246982.25	442.61
2679526.75	1246826.25	457.7
2679553.25	1246815.25	455.23
2679317.25	1246954.75	464.28
2679341.75	1246801.75	489.88
2679289.25	1247073.75	452.26
2679353.25	1247139.75	442.16
2679453.75	1247050.25	440.43
2679310.25	1246999.75	456.92
2679423.75	1246904.75	458.46
2679341.75	1247017.75	452.75
2679297.75	1246804.75	491.81
2679311.75	1247135.25	446.59
2679505.75	1247059.25	439.21
2679300.75	1247133.75	447.94
2679464.25	1246862.75	460.63
2679357.75	1246870.25	475.41
2679332.75	1247029.75	452.35
2679344.75	1246829.75	482.09
2679372.75	1247131.25	440.19
2679340.75	1246866.25	480.82
2679601.75	1246940.75	445.93
2679327.75	1246985.25	457.32
2679332.75	1246921.25	468.29
2679287.75	1246811.25	491.09
2679653.25	1246810.75	459.06
2679646.75	1247028.25	439.87
2679600.25	1247082.75	436.29
2679365.25	1246813.25	484.69
2679522.75	1246934.25	446.9
2679511.75	1246870.75	452.64
2679414.75	1246824.25	476.58
2679584.75	1247094.75	435.89
2679331.25	1247074.75	449.73
2679300.75	1246985.25	459.48
2679379.25	1247140.25	440.22
2679468.75	1247079.75	439.68
2679486.25	1247015.75	440.65
2679301.25	1246832.75	486.75
2679465.75	1247118.75	436.29
2679571.75	1246924.25	446.4
2679389.75	1247009.25	448.9
2679559.25	1246915.25	446.65
2679512.75	1246832.75	457.97
2679368.75	1247023.25	449.01
2679323.75	1246866.25	482.18
2679370.25	1246814.75	483.64
2679428.75	1246941.25	453.63
2679349.75	1246795.25	490.07
2679295.25	1246941.75	467.35
2679536.75	1246878.25	452.02
2679427.25	1246834.25	472.85
2679295.25	1247065.75	452.33
2679575.75	1246889.75	448.9
2679386.25	1247055.25	446.03
2679391.75	1247074.25	443.44
2679327.25	1246816.75	486.18
2679502.75	1246842.75	455.98
2679449.25	1246876.75	460.58
2679304.75	1247119.75	448.69
2679296.25	1246878.25	481
2679302.75	1246823.25	489.55
2679513.75	1246796.25	464.23
2679653.75	1247137.75	434.05
2679337.25	1246816.75	486.05
2679333.25	1247127.25	445.71
2679382.75	1246897.25	464.55
2679353.75	1247082.75	446.58
2679350.75	1246807.25	487.86
2679387.75	1246892.75	465.06
2679374.75	1247141.75	440.87
2679639.25	1246949.25	445.51
2679339.25	1246932.25	464.27
2679600.75	1246835.25	453.55
2679342.75	1247113.25	446.54
2679529.25	1246916.75	447.51
2679395.25	1246874.75	467.57
2679625.25	1246911.75	448.63
2679516.25	1247072.25	439.01
2679280.25	1246833.75	485.9
2679338.25	1246873.75	476.43
2679366.25	1247116.25	443.28
2679488.75	1246965.25	445.7
2679300.25	1246820.75	491.03
2679312.25	1247137.25	446.49
2679344.25	1246923.75	463.94
2679479.75	1246889.75	454.73
2679386.25	1246858.25	475.73
2679423.25	1246868.25	464.88
2679423.75	1246835.25	473.53
2679434.25	1246835.25	470.12
2679379.75	1247136.75	439.52
2679333.75	1247119.25	446.09
2679633.25	1246952.25	444.78
2679623.75	1246815.25	459.24
2679443.25	1246884.25	459.64
2679334.25	1246857.75	481.88
2679485.75	1246854.25	455.75
2679530.25	1246797.25	459.49
2679320.25	1246790.75	492.97
2679367.75	1246830.25	479.12
2679286.75	1246824.25	489.34
2679452.25	1246875.75	459.11
2679301.75	1247133.75	447.76
2679511.25	1246812.25	463.22
2679300.25	1247065.25	452.08
2679515.25	1246878.25	452.16
2679443.25	1246880.25	461.77
2679425.25	1247026.75	444.16
2679446.75	1246964.25	450.68
2679291.75	1246871.25	481.87
2679314.75	1246839.75	484.72
2679601.75	1246821.25	455.14
2679508.25	1246835.25	458.2
2679427.25	1247034.75	442.62
2679493.25	1246993.25	441.93
2679304.75	1247108.25	448.69
2679339.25	1246896.75	469.11
2679589.25	1247107.25	435.79
2679324.25	1247008.75	455.24
2679359.25	1247141.75	442.27
2679276.25	1247095.25	451.64
2679522.75	1246934.75	446.85
2679509.25	1246916.25	450
2679647.75	1247122.25	436.25
2679489.75	1246912.75	450.24
2679635.75	1246786.75	461.64
2679507.75	1246791.75	466.46
2679424.75	1246789.25	478.39
2679380.25	1247145.25	440.67
2679385.75	1246821.75	477.95
2679335.75	1246796.75	491.78
2679446.75	1246792.25	473.96
2679583.25	1247088.75	437.22
2679652.25	1246795.75	460.77
2679299.25	1247099.25	450.17
2679339.25	1246917.75	465.78
2679444.25	1247135.25	436.9
2679361.75	1246807.75	486.54
2679432.75	1246789.25	475.05
2679484.75	1246835.75	460.91
2679413.75	1247047.75	442.84
2679607.25	1246993.25	442.44
2679387.25	1246968.25	452.53
2679486.25	1247075.75	438.26
2679439.25	1246786.25	477.11
2679292.25	1246787.75	496.68
2679648.75	1246959.25	444.63
2679295.75	1246893.25	476.57
2679288.25	1246801.75	492.65
2679339.25	1246915.75	465.83
2679400.25	1246882.75	465.82
2679324.25	1246998.75	455.59
2679337.25	1246801.25	490.89
2679315.25	1246803.25	492.2
2679423.25	1246972.75	450.72
2679391.75	1246884.75	465.52
2679295.75	1246840.25	484.83
2679554.75	1246852.75	452.76
2679329.75	1246785.25	493.61
2679491.75	1246955.75	445.66
2679558.75	1246915.25	446.52
2679593.75	1247089.75	435.73
2679378.75	1246967.75	453.81
2679615.25	1246866.25	452.2
2679276.75	1247068.25	453.71
2679409.75	1247002.75	448.18
2679445.75	1246928.25	454.31
2679584.25	1247095.75	435.84
2679322.25	1247106.75	448.66
2679397.25	1246830.25	477.53
2679326.25	1247110.75	446.51
2679459.25	1247104.75	439.07
2679563.25	1246924.75	446.04
2679284.25	1246915.75	475.47
2679419.75	1246863.75	465.59
2679362.25	1247038.75	449.2
2679437.75	1246902.75	457.81
2679347.75	1247009.75	452.38
2679469.25	1246872.75	456.98
2679289.75	1246935.75	470.29
2679342.75	1247082.75	447.18
2679648.25	1247005.75	441.24
2679644.75	1247009.25	440.46
2679389.25	1246976.25	451.31
2679530.25	1246897.25	449.8
2679356.75	1246903.75	465.05
2679316.75	1246926.75	468.59
2679346.75	1246946.75	461.3
2679300.75	1247091.75	450.75
2679322.25	1247144.25	445.75
2679344.25	1247060.25	449.77
2679338.75	1246866.75	480.81
2679607.75	1247151.75	434.96
2679310.75	1246815.75	490.13
2679540.25	1246906.25	447.66
2679281.25	1246890.75	480.83
2679498.25	1246788.25	470.29
2679538.25	1247006.75	439.67
2679632.25	1247001.25	443.53
2679386.25	1246825.75	478.06
2679348.75	1247092.25	446.31
2679650.25	1247059.25	437.98
2679382.25	1246859.25	475.76
2679416.75	1247144.25	439.41
2679616.25	1246872.75	450.06
2679564.25	1247130.25	434.61
2679309.75	1246785.75	495.05
2679415.25	1247034.75	443.78
2679438.75	1246786.25	477.21
2679457.75	1246867.75	459.77
2679410.75	1246858.25	470.25
2679299.25	1247069.25	450.73
2679332.25	1246858.75	481.97
2679478.75	1247135.75	436.1
2679546.25	1246998.75	441.48
2679443.25	1247003.25	445.45
2679322.75	1246962.75	461.34
2679410.25	1246841.25	473.75
2679537.75	1247018.25	440.29
2679300.75	1247082.25	450.7
2679651.25	1247054.75	437.58
2679350.25	1246790.75	491
2679340.75	1247117.25	446.27
2679469.75	1246819.25	466.57
2679484.75	1246927.75	450.18
2679421.25	1246901.25	459.63
2679371.25	1247131.25	440.65
2679483.75	1247093.25	437.59
2679288.25	1246951.75	466.08
2679441.25	1246854.25	463.13
2679416.25	1246906.25	459.54
2679326.75	1246885.25	475.44
2679359.75	1247083.25	445.82
2679333.25	1246865.25	480.57
2679558.75	1246912.25	446.42
2679302.75	1247032.25	454.95
2679622.75	1246784.75	462.15
2679283.25	1247078.75	453.03
2679551.75	1246874.25	449.68
2679304.25	1246955.25	463.77
2679415.25	1247039.75	443.16
2679569.75	1246911.25	447.88
2679416.25	1246870.25	465.86
2679463.25	1246819.25	468.02
2679367.75	1246845.75	479.77
2679418.75	1247001.25	446.54
2679309.25	1246967.75	460.26
2679562.25	1247065.25	438.44
2679289.75	1247086.25	451.25
2679379.25	1247126.75	442.01
2679304.75	1247073.25	450.66
2679306.75	1246960.75	462.82
2679588.25	1246840.75	453.28
2679653.75	1247033.75	440.57
2679566.75	1246950.75	445.32
2679410.75	1247002.25	448.14
2679517.75	1246860.75	454.04
2679360.75	1247100.75	444.52
2679374.25	1247136.25	439.27
2679379.75	1247000.25	450.55
2679317.75	1246888.25	475.85
2679452.75	1247090.75	439.91
2679423.25	1246785.25	478.89
2679437.25	1246864.25	464.04
2679285.75	1247085.75	452.08
2679509.75	1246874.25	452.36
2679354.75	1246856.75	480.51
2679541.25	1246906.75	447.55
2679279.75	1247095.25	450.89
2679452.25	1246805.75	473.44
2679563.25	1246916.25	447.49
2679324.75	1246927.75	468.4
2679323.25	1247082.25	448.4
2679611.25	1247077.25	435.87
2679355.75	1246865.25	479.57
2679605.75	1246951.25	445.78
2679338.25	1246815.25	486.37
2679460.25	1246878.25	456.7
2679419.75	1246865.75	465.66
2679460.75	1247045.25	440.99
2679497.75	1247024.75	439.68
2679452.75	1246878.25	458.56
2679321.25	1246923.25	470.26
2679306.25	1246804.75	492.04
2679430.75	1246945.25	452.13
2679529.75	1246840.75	454.31
2679335.75	1246786.75	493.4
2679463.25	1246842.25	462.91
2679370.75	1246923.75	460.47
2679339.25	1246792.75	491.71
2679524.25	1246911.75	448.02
2679457.75	1247119.75	437.18
2679549.25	1246838.75	454.93
2679480.75	1246912.75	452.15
2679463.25	1246875.25	456.95
2679290.75	1246811.25	490.99
2679349.25	1246987.75	452.81
2679391.75	1247116.75	440.39
2679429.75	1246816.75	474.88
2679588.25	1246849.75	452.09
2679505.75	1246787.25	469.15
2679451.25	1247117.25	439.17
2679347.25	1246966.75	456.79
2679307.25	1246837.25	486.74
2679291.25	1246843.25	484.27
2679514.25	1247098.25	436.67
2679594.75	1246809.75	457.18
2679644.25	1246841.75	456.09
2679526.75	1246875.75	452.14
2679411.25	1246795.75	480.28
2679276.25	1247068.25	453.75
2679532.75	1247098.25	436.1
2679612.75	1247005.75	441.6
2679584.25	1247119.25	435.72
2679499.75	1247024.25	439.74
2679549.25	1246855.25	452.52
2679393.75	1246788.75	484.5
2679527.25	1246785.25	463.76
2679413.75	1246824.25	476.61
2679387.75	1246846.25	475.88
2679615.75	1246839.25	455.56
2679310.25	1246881.75	477.42
2679532.25	1246936.25	445.83
2679357.75	1246878.75	471.81
2679310.25	1247137.75	446.61
2679451.75	1246842.75	463.62
2679461.75	1246909.75	454.39
2679395.25	1247051.25	445.34
2679422.75	1246786.25	478.81
2679314.75	1246840.25	484.43
2679348.25	1246830.25	480.93
2679286.25	1247091.25	450.92
2679642.75	1246801.25	459.29
2679597.75	1247080.75	437.42
2679350.75	1246942.25	459.81
2679324.25	1246864.25	482.45
2679330.75	1246858.75	482.11
2679614.75	1246791.75	459.86
2679450.25	1246882.25	459.26
2679434.25	1246856.75	465.86
2679432.25	1246994.75	446.93
2679443.75	1246870.75	462.36
2679490.25	1246813.75	465.75
2679394.25	1246811.75	479.5
2679326.75	1246816.25	486.31
2679306.75	1246818.25	489.85
2679383.75	1246809.25	482.66
2679352.25	1246833.75	480.75
2679334.75	1246869.75	479.3
2679622.25	1247005.75	441.58
2679309.75	1247119.75	448.07
2679305.25	1246873.25	481.33
2679323.75	1246928.25	468.31
2679299.75	1246821.25	490.78
2679383.25	1246791.25	485.3
2679323.25	1246942.25	465.1
2679353.25	1246865.75	480.3
2679529.75	1246923.75	445.81
2679631.75	1247064.75	437.96
2679298.75	1246846.25	483.83
2679464.75	1247118.75	436.34
2679311.25	1246932.25	467.65
2679361.25	1247005.75	450.41
2679500.75	1247115.25	436.16
2679409.75	1246807.25	476.76
2679610.25	1247083.75	435.96
2679359.75	1247093.25	445.69
2679474.25	1246936.25	451.29
2679610.25	1247080.75	435.77
2679407.25	1246787.25	481.69
2679650.75	1247013.75	440.17
2679650.25	1246883.75	450.63
2679394.75	1246793.75	482.21
2679503.75	1247110.25	436.4
2679454.25	1247066.75	440.19
2679411.25	1247000.75	448.25
2679288.75	1246825.75	489.11
2679511.75	1247110.25	435.22
2679612.25	1246978.25	442.8
2679458.25	1246823.25	467.46
2679460.25	1246808.75	470.58
2679376.75	1246866.25	473.45
2679577.75	1246921.75	446.66
2679384.75	1246847.25	476.66
2679401.25	1247080.75	442.96
2679354.75	1246963.25	456.85
2679353.75	1246862.25	479.61
2679441.25	1246923.75	455.42
2679319.75	1247114.25	446.99
2679340.75	1247029.25	450.41
2679377.75	1247142.25	440.75
2679467.25	1247099.25	438.21
2679280.25	1246868.75	482.5
2679301.25	1247094.25	450.58
2679476.75	1246847.75	459.77
2679649.25	1247018.25	439.61
2679550.25	1246908.25	446.63
2679647.75	1246958.75	444.62
2679617.25	1246926.25	446.8
2679522.75	1246795.25	461.11
2679424.25	1246830.75	474.43
2679299.75	1247137.25	446.46
2679416.75	1247148.75	439.25
2679416.25	1246995.25	448.42
2679560.75	1247127.25	434.7
2679455.75	1246998.25	444.51
2679655.75	1247017.75	439.57
2679509.25	1246969.25	443.59
2679323.75	1246877.75	479.43
2679335.25	1246898.25	471.63
2679385.25	1246893.75	465.12
2679282.75	1247073.25	453.35
2679287.25	1247078.25	452.13
2679318.75	1246839.75	484.63
2679611.25	1246863.75	452.41
2679346.75	1246918.25	464.47
2679398.75	1246882.75	466.05
2679430.75	1246944.75	452.21
2679654.75	1246856.25	455.25
2679352.75	1247083.25	446.86
2679521.25	1246819.25	459.92
2679373.75	1247043.25	447.27
2679429.75	1246821.75	473.3
2679575.25	1246893.75	448.15
2679590.75	1246844.25	452.77
2679419.75	1246862.75	465.67
2679339.75	1247115.75	446.43
2679627.25	1246786.75	461.69
2679448.25	1246969.75	449.51
2679646.25	1246978.25	443.26
2679328.25	1247127.75	445.54
2679537.25	1247018.25	440.3
2679580.75	1246871.75	449.59
2679337.75	1246800.75	490.97
2679473.25	1247041.75	440.38
2679655.75	1246836.75	458.7
2679384.25	1247039.75	447.63
2679381.75	1246784.25	486.51
2679292.25	1247084.25	450.79
2679456.75	1246930.25	451.4
2679590.25	1246826.75	454.94
2679519.25	1246964.25	443.97
2679554.75	1246851.75	452.88
2679463.25	1246856.25	461.32
2679344.25	1246790.25	491.69
2679654.25	1247056.75	435.97
2679390.25	1246791.75	484.37
2679339.75	1247124.75	444.58
2679312.25	1246972.75	459.77
2679646.25	1247028.75	439.99
2679380.75	1246911.75	460.69
2679651.25	1246997.75	442.94
2679521.25	1246881.25	452.11
2679465.75	1247150.75	435.9
2679446.75	1246877.25	461.75
2679545.25	1246808.75	457.54
2679556.25	1246804.25	458.08
2679423.75	1246851.75	469.66
2679626.75	1246914.75	448.19
2679373.25	1247058.75	447.41
2679355.75	1246816.25	485.96
2679493.25	1246845.75	457.95
2679437.25	1246860.75	464.99
2679466.25	1247027.25	442.49
2679508.25	1246862.75	453.89
2679304.25	1246909.25	472.21
2679489.75	1246825.25	463.61
2679485.25	1247015.75	440.75
2679505.75	1246787.75	468.91
2679372.75	1247130.75	440.55
2679320.75	1246921.25	470.65
2679381.25	1246931.75	458.24
2679352.25	1246877.75	473.07
2679430.75	1247059.25	440.81
2679515.25	1247100.75	436.55
2679648.75	1247122.75	436.32
2679313.25	1246962.75	462.27
2679509.25	1246835.25	458.16
2679381.75	1247087.25	443.42
2679405.75	1246861.75	470.46
2679454.25	1247067.25	440.19
2679653.75	1246856.25	455.28
2679421.25	1246796.25	475.66
2679575.25	1247091.75	437.18
2679484.25	1246835.25	461.1
2679622.25	1247079.75	435.69
2679390.25	1246856.75	474.68
2679389.75	1246976.25	451.3
2679289.25	1246941.75	468.03
2679310.75	1246916.25	471.81
2679465.25	1246887.25	456.77
2679528.75	1246874.75	452.11
2679598.25	1246937.25	446.77
2679323.75	1246804.75	490.11
2679570.75	1246819.25	454.1
2679543.75	1247025.25	440.31
2679336.25	1246893.75	469.84
2679353.25	1246885.25	469.17
2679322.25	1246818.25	488.4
2679278.75	1246876.75	481.36
2679276.25	1246862.75	485.42
2679310.25	1246923.25	469.61
2679286.75	1247082.75	451.57
2679326.75	1246920.25	470.27
2679381.25	1247136.75	439.71
2679552.75	1246813.25	455.62
2679605.75	1247103.25	435.35
2679278.25	1246831.75	486.66
2679353.25	1246830.75	482.62
2679310.75	1247113.25	447.86
2679347.25	1247021.75	450.36
2679282.75	1247064.25	453.57
2679399.75	1247085.75	441.85
2679334.25	1246940.25	464.19
2679514.25	1246960.25	444.97
2679399.75	1247039.75	445.34
2679295.25	1246821.75	489.48
2679325.25	1246872.75	480.46
2679633.75	1247021.25	441.03
2679323.25	1247072.25	450.28
2679648.75	1247055.25	438.05
2679598.25	1247080.75	437.41
2679383.25	1247029.25	447.43
2679419.25	1246862.75	465.76
2679290.25	1247089.25	450.83
2679343.25	1247017.75	452.59
2679348.75	1247092.75	446.28
2679392.75	1246855.75	474.24
2679563.25	1246809.75	457.21
2679353.75	1246816.25	486.23
2679536.25	1246880.75	450.53
2679547.75	1246958.25	444.32
2679560.75	1247062.75	438.91
2679318.75	1247077.75	450.32
2679350.75	1247132.75	443.62
2679362.75	1246824.75	482.74
2679347.25	1246866.25	479.79
2679584.25	1246878.25	450.13
2679545.75	1246918.25	446.31
2679471.75	1247022.25	442.95
2679399.25	1247049.25	444.9
2679442.75	1246810.75	473.76
2679615.75	1247003.75	441.87
2679322.75	1247125.25	446.14
2679380.25	1247140.75	440.22
2679443.25	1246922.25	455.52
2679530.25	1246881.75	452.16
2679353.25	1246834.25	480.5
2679352.75	1247087.25	446.26
2679538.75	1246879.75	450.91
2679301.75	1246803.75	492
2679321.25	1247042.75	450.94
2679614.75	1246865.75	452.29
2679389.25	1247008.75	449.05
2679444.25	1246927.75	454.46
2679483.25	1246836.25	460.97
2679547.25	1246880.75	449.61
2679295.25	1246825.25	488.88
2679333.25	1246908.75	470.31
2679622.25	1247003.25	441.5
2679311.25	1246885.25	476.25
2679590.75	1247105.25	435.82
2679540.25	1246812.75	457.08
2679276.75	1247061.25	454.68
2679345.75	1246919.25	464.58
2679432.25	1246833.75	471.1
2679378.75	1247136.75	439.42
2679378.25	1246794.75	486.98
2679402.75	1247028.75	446.39
2679478.75	1247098.25	437.42
2679466.25	1247116.75	436.34
2679305.25	1247101.75	449.71
2679339.25	1246866.25	480.95
2679279.25	1246827.75	489.3
2679453.25	1246939.25	451.46
2679570.25	1246984.25	442.88
2679281.75	1247078.75	453.3
2679316.25	1246953.75	464.53
2679531.25	1247007.75	441.26
2679646.75	1246976.75	443.71
2679391.25	1246811.25	479.87
2679324.25	1246887.25	475.17
2679429.25	1246830.75	472.74
2679307.25	1246916.25	471.69
2679415.75	1246795.25	476.92
2679480.25	1246852.75	457.92
2679545.25	1246873.75	452.17
2679489.75	1246807.75	466.41
2679301.75	1246997.25	458.26
2679627.75	1247096.25	436.48
2679312.75	1246942.75	466.15
2679522.25	1246811.25	460.39
2679640.75	1247002.25	443.1
2679465.75	1246839.75	462.43
2679448.75	1246881.25	460.1
2679439.25	1246857.25	464.34
2679602.75	1246969.75	443.54
2679310.25	1247005.25	456.71
2679322.75	1246814.75	488.31
2679347.25	1246796.25	489.4
2679507.75	1246835.75	458.02
2679334.75	1246922.25	467.39
2679306.25	1246808.75	492.05
2679404.75	1247027.75	446.23
2679592.75	1246881.25	449.27
2679379.25	1247135.75	439.46
2679645.75	1246978.25	443.33
2679466.25	1246844.75	461.7
2679396.75	1246835.25	476.87
2679414.75	1247019.25	445.75
2679516.25	1246814.25	461.09
2679481.75	1246836.75	461
2679344.25	1246903.25	465.55
2679284.25	1247086.75	452.21
2679388.25	1246967.75	452.54
2679278.25	1246813.75	490.92
2679497.75	1247136.75	435.39
2679288.75	1246860.75	484.51
2679390.25	1246797.75	482.23
2679510.25	1246878.25	452.05
2679607.25	1246973.25	443.26
2679583.25	1247119.25	435.79
2679376.25	1246978.25	453.72
2679340.75	1246904.25	466.32
2679309.25	1247085.25	449.99
2679318.75	1247034.25	453.25
2679444.25	1246875.75	462.71
2679317.75	1246814.75	491.11
2679627.25	1246858.75	453.02
2679279.25	1246911.25	478.37
2679421.25	1246997.25	447.01
2679371.25	1246899.75	464.97
2679316.75	1247039.75	452.31
2679489.75	1246796.75	469.06
2679341.25	1247055.75	449.48
2679650.25	1246977.25	444.43
2679324.75	1246978.75	457.43
2679316.75	1246823.75	489.64
2679416.25	1247034.25	443.69
2679606.75	1247115.25	435.36
2679655.75	1246802.75	459.63
2679546.75	1246877.75	449.89
2679561.75	1246901.25	448.66
2679325.25	1247006.25	455.32
2679343.75	1246903.25	465.6
2679441.25	1247066.25	439.64
2679613.75	1246792.25	459.72
2679536.75	1246863.25	452.66
2679283.25	1247053.75	454.81
2679359.25	1246827.25	482.73
2679391.25	1247066.75	445.53
2679555.75	1247116.75	436.68
2679608.75	1246796.25	459.41
2679284.75	1246861.25	484.67
2679391.75	1247075.75	443.28
2679514.25	1247012.25	440.84
2679474.25	1247082.75	438.38
2679346.75	1246904.75	465.06
2679419.75	1246866.25	465.6
2679566.25	1246857.25	450.9
2679329.25	1246873.25	479.98
2679455.25	1246964.25	449.56
2679451.75	1246894.25	456.75
2679640.75	1246998.75	443.13
2679374.25	1246798.25	486.83
2679380.75	1247116.75	442.29
2679482.25	1246851.25	458.08
2679306.75	1247082.75	450.37
2679460.25	1247082.25	439.79
2679609.75	1246810.75	456.8
2679413.75	1246805.75	476.19
2679283.75	1246899.75	479.33
2679526.25	1246941.25	444.93
2679615.75	1246799.25	458.89
2679569.75	1247098.75	436.95
2679362.25	1246911.75	461.77
2679512.75	1246810.75	463.41
2679561.75	1246900.75	448.7
2679408.75	1247020.25	446.34
2679486.75	1246846.75	458.83
2679296.75	1247127.75	448.62
2679598.25	1247080.25	437.5
2679434.75	1246856.25	465.88
2679342.75	1246876.25	474.89
2679303.25	1246803.75	491.98
2679461.25	1246877.25	456.63
2679616.25	1247071.75	436.95
2679409.75	1246864.75	467.62
2679394.75	1246889.25	464.67
2679439.25	1246910.75	457.25
2679415.25	1247025.75	444.23
2679570.75	1246916.25	447.91
2679353.75	1246946.75	459.07
2679441.75	1246831.25	467.7
2679298.75	1247026.75	455.32
2679333.75	1247127.75	445.63
2679519.25	1246785.75	465.01
2679368.75	1247140.75	440.87
2679511.25	1247115.75	435.91
2679428.25	1246903.25	458.82
2679295.25	1247071.25	450.67
2679527.25	1246826.75	457.41
2679300.75	1247129.75	447.57
2679524.75	1247003.25	441.67
2679308.25	1247077.75	450.81
2679388.25	1247009.75	449.05
2679386.25	1246872.25	470.66
2679565.25	1246924.25	446.13
2679460.25	1246798.75	472.91
2679566.75	1247125.25	435.9
2679531.75	1247068.75	438.13
2679374.25	1246925.75	459.82
2679642.25	1246975.75	444.06
2679446.75	1246928.25	454.22
2679424.25	1246978.25	449.77
2679449.75	1247127.75	437.71
2679482.75	1247131.75	436.14
2679403.25	1247149.75	440.26
2679651.75	1246878.75	452.32
2679344.75	1247058.75	449.74
2679628.25	1247062.25	438.9
2679406.75	1247023.25	445.83
2679550.75	1246902.25	447.94
2679418.75	1246862.25	466.13
2679428.75	1247145.25	439
2679413.25	1247047.25	442.9
2679397.75	1246804.25	481.56
2679419.75	1246992.25	448.43
2679645.75	1246842.25	456.08
2679584.75	1247007.25	441.52
2679526.25	1247062.75	439.13
2679555.75	1246976.75	443.04
2679424.75	1246949.25	452.13
2679641.75	1246975.75	444.05
2679339.75	1246931.75	464.19
2679324.75	1246842.25	482.16
2679508.25	1246851.25	455.26
2679373.75	1246796.25	487.58
2679386.75	1247135.25	440.62
2679294.75	1247111.25	450.17
2679280.75	1247087.25	452.43
2679392.75	1246795.75	482.08
2679387.25	1247036.25	447
2679327.25	1247102.75	447.87
2679454.25	1246954.75	450.66
2679545.75	1246976.75	442.74
2679579.75	1246819.25	455.12
2679327.75	1246926.75	468.37
2679472.75	1246872.75	456.15
2679407.25	1246788.25	481.64
2679646.75	1246978.25	443.24
2679371.25	1247135.75	440
2679477.25	1246895.25	455.09
2679512.25	1246998.75	442.27
2679308.25	1247150.75	446.28
2679649.75	1247012.25	440.29
2679408.25	1246795.75	481.53
2679374.75	1247137.25	439.45
2679552.75	1246874.25	449.63
2679596.75	1247081.75	437.24
2679453.75	1247112.75	439.15
2679606.25	1247080.25	435.94
2679342.25	1246861.75	481.25
2679525.25	1247093.25	436.53
2679571.25	1246997.75	441.31
2679566.75	1246887.75	448.72
2679342.75	1247099.25	446.28
2679432.25	1246837.25	471.39
2679276.25	1246942.25	470.12
2679360.25	1246935.75	459.55
2679458.75	1246838.75	463.38
2679560.75	1247071.25	437.83
2679508.75	1247106.75	435.8
2679578.75	1246828.25	453.48
2679294.25	1246832.25	486.09
2679342.75	1246791.75	491.35
2679512.25	1246788.25	466.01
2679402.25	1247076.25	442.82
2679278.75	1246985.25	461.46
2679467.25	1246890.25	456.63
2679447.75	1246949.25	451.57
2679284.75	1246886.75	480.94
2679396.75	1246808.25	480.47
2679588.75	1246829.75	454.49
2679282.25	1246889.25	480.99
2679375.25	1246820.75	481.43
2679361.25	1246866.25	475.48
2679501.25	1247004.75	441.16
2679490.75	1247018.25	439.46
2679334.25	1247140.75	444.55
2679430.25	1246872.25	464.24
2679315.25	1246954.25	464.53
2679395.75	1247069.75	443.99
2679457.75	1246802.75	473.12
2679607.75	1247115.75	435.34
2679494.25	1247079.25	437.88
2679531.25	1246943.75	444.73
2679346.75	1246873.25	476.71
2679344.75	1246872.25	478.13
2679330.25	1247081.75	447.72
2679297.25	1247132.75	448.68
2679440.75	1246853.25	463.47
2679336.75	1246893.75	469.55
2679427.25	1246818.25	475.07
2679373.75	1247132.25	439.61
2679554.75	1246957.25	444.84
2679410.25	1246948.75	453.74
2679331.75	1246791.25	493.2
2679322.75	1246815.75	488.25
2679434.75	1246786.75	476.26
2679399.25	1246882.25	466.11
2679291.25	1246801.75	493.27
2679311.25	1246887.25	475.65
2679472.25	1247029.75	441.3
2679303.25	1247065.75	451.87
2679369.75	1246844.75	479.62
2679400.75	1247009.25	447.45
2679595.75	1247005.75	440.39
2679340.75	1246795.75	490.1
2679496.75	1246913.25	450.11
2679328.75	1246882.75	475.82
2679293.75	1246909.25	475.04
2679427.25	1246814.75	475.34
2679280.25	1247057.25	454.74
2679360.75	1246902.25	465.36
2679345.25	1247140.25	443.76
2679495.75	1246820.75	462.68
2679490.25	1246842.25	459.35
2679453.75	1247105.75	439.15
2679335.25	1246923.25	467.19
2679293.75	1247137.25	448.74
2679494.75	1246834.25	460.46
2679323.75	1247094.75	448.04
2679590.75	1246843.75	452.8
2679651.75	1246878.25	452.39
2679471.25	1246836.25	462.92
2679542.25	1246874.25	452.19
2679642.75	1247127.25	434.67
2679468.75	1246849.75	460.31
2679592.25	1247090.75	435.74
2679315.75	1246890.75	475.02
2679305.25	1246860.25	483.65
2679315.75	1247005.75	455.61
2679388.75	1246968.25	452.45
2679345.25	1246885.75	469.08
2679494.75	1247110.25	436.72
2679627.25	1247082.25	436.57
2679605.25	1246805.75	457.79
2679625.25	1247097.75	436.34
2679283.75	1246909.75	478.38
2679596.75	1246872.75	450.11
2679278.75	1246784.25	497.65
2679346.25	1247066.25	448.7
2679337.25	1246898.75	470.62
2679475.75	1247092.25	438.79
2679611.75	1247072.75	437.76
2679621.25	1246805.75	458.14
2679491.25	1246824.75	463.4
2679429.75	1246789.25	476.02
2679463.25	1247048.75	440.64
2679597.75	1246967.25	443.59
2679482.75	1247139.25	435.27
2679319.25	1246813.25	491.09
2679486.25	1247081.75	438.64
2679441.75	1246885.25	459.36
2679363.75	1247117.75	443.43
2679473.25	1247029.25	441.35
2679434.75	1247135.25	438.67
2679550.75	1246900.75	448.26
2679577.25	1247125.75	435.44
2679439.75	1246864.25	463.56
2679283.75	1246811.75	491.04
2679290.25	1246929.75	471.98
2679377.25	1247126.25	441.99
2679323.75	1247104.75	449.03
2679566.75	1246838.25	452.49
2679336.25	1246964.75	459.57
2679363.75	1247140.25	442.02
2679412.75	1247027.25	444.14
2679287.25	1246887.25	480.75
2679515.75	1247100.25	436.59
2679569.75	1247128.25	435.62
2679493.75	1246830.25	461.05
2679372.75	1247128.25	442.08
2679611.75	1246935.75	446.78
2679478.25	1247098.75	437.44
2679644.75	1247002.75	442.8
2679528.25	1247115.25	436
2679324.25	1247017.25	454.48
2679340.25	1246874.25	476.63
2679616.25	1247082.25	435.17
2679538.25	1247006.25	439.69
2679526.25	1247117.25	435.71
2679498.75	1247009.25	440.88
2679514.25	1247082.75	437.85
2679625.25	1247011.25	441.37
2679311.75	1247005.25	456.4
2679631.75	1247064.25	438.05
2679607.25	1246998.75	442.01
2679465.75	1246844.75	461.87
2679318.25	1246886.75	476.5
2679358.75	1247098.25	445.13
2679298.25	1246804.75	491.81
2679425.75	1247028.25	443.85
2679633.75	1247011.75	441.27
2679615.25	1246849.25	453.34
2679314.25	1246926.25	468.65
2679350.75	1246873.75	475.03
2679415.25	1246930.75	456.61
2679632.25	1246835.25	456.62
2679429.25	1246959.75	451.93
2679481.75	1247033.75	440.5
2679444.25	1246881.25	461.15
2679424.75	1246977.75	449.84
2679466.25	1247106.25	437.7
2679386.75	1246937.75	457.48
2679346.75	1246915.75	464.65
2679563.75	1246838.25	452.96
2679441.25	1246861.25	463.5
2679485.75	1246810.75	466.32
2679284.25	1246988.75	460.18
2679375.75	1247129.25	441.69
2679365.25	1246828.25	479.92
2679487.25	1246833.25	460.95
2679339.75	1246912.75	465.66
2679295.75	1246821.25	489.6
2679557.75	1246800.75	458.3
2679441.75	1246808.25	474.32
2679288.25	1247095.25	450.77
2679652.25	1247078.75	437.3
2679342.75	1246794.25	489.94
2679410.75	1246989.75	449.66
2679517.75	1247090.25	436.6
2679644.75	1247002.25	442.9
2679337.25	1246825.75	484.39
2679442.25	1246810.75	473.9
2679329.75	1246895.75	472.65
2679304.25	1246942.75	466.57
2679433.75	1246870.25	464.01
2679294.75	1246825.75	488.73
2679384.25	1247121.25	441.86
2679276.25	1247083.25	452.44
2679652.75	1247128.25	436.17
2679500.75	1247010.25	440.71
2679463.25	1246855.75	461.38
2679393.25	1246805.75	481.83
2679397.75	1246835.25	476.73
2679409.25	1246960.25	451.91
2679363.75	1246907.25	462.77
2679516.75	1246813.75	461.13
2679351.25	1246832.75	481.01
2679424.25	1246960.25	451.92
2679316.75	1247097.25	449.17
2679535.75	1247104.75	436.71
2679336.75	1246799.75	491.29
2679337.25	1246816.25	486.15
2679565.75	1246976.75	443.17
2679409.25	1247020.25	446.3
2679331.75	1247140.25	444.66
2679655.75	1247057.25	436.08
2679314.25	1247150.75	444.84
2679436.75	1247115.25	440
2679418.25	1246953.75	452.07
2679343.75	1246959.75	459.26
2679286.75	1247090.75	450.99
2679414.75	1246886.75	461.99
2679393.75	1246945.75	456.49
2679328.75	1246917.75	470.28
2679303.75	1247001.25	457.66
2679309.75	1246817.25	489.84
2679561.75	1246811.25	457.33
2679411.25	1246808.75	476.19
2679647.25	1247120.75	436.27
2679383.75	1246990.75	450.95
2679460.25	1246823.75	467.07
2679293.25	1247072.75	450.85
2679414.75	1247039.25	443.22
2679490.25	1247028.75	440.39
2679466.75	1246823.75	465.42
2679536.75	1247097.25	436.9
2679588.75	1247107.25	435.81
2679570.25	1246911.75	447.88
2679282.25	1247078.75	453.22
2679427.25	1246817.75	475.18
2679545.75	1246808.25	457.6
2679381.75	1246873.25	470.78
2679357.25	1246956.25	457.93
2679453.75	1247067.75	440.19
2679337.25	1246948.75	461.59
2679639.75	1246839.75	456.33
2679293.25	1246903.75	476.99
2679326.25	1246795.25	492.96
2679328.75	1246923.25	469.23
2679593.25	1246917.75	447.81
2679385.25	1247121.75	441.81
2679352.25	1246929.25	460.94
2679299.25	1247073.25	450.61
2679560.25	1247089.25	437.31
2679400.75	1246785.25	484.54
2679422.25	1246790.25	478.64
